ply
format ascii 1.0
element vertex 467
property float x
property float y
property float z
property uchar diffuse_red
property uchar diffuse_green
property uchar diffuse_blue
property int32 number_of_camera_sees_this_point
property float vsfm_cnx
property float vsfm_cny
property float vsfm_cnz
end_header
-2.87356986269 2.68504340789 -3.7342106168 34 24 20 3 -0.623744604749 -0.767345822133 0.148738217351
-2.71235395478 2.70717919947 -4.09097971768 41 30 28 3 -0.637026272459 -0.734764586776 0.233063360948
-2.57492290356 2.69388484322 -3.86557452745 38 38 43 2 -0.605118328713 -0.747396725885 0.274280772915
-3.03826412987 2.68038433794 -3.88533575224 108 107 102 2 -0.516681720846 -0.801511137588 0.301031386512
-2.59527127526 2.74994281504 -5.24252710716 43 35 40 4 -0.623639517243 -0.697834708469 0.352278969268
-2.6411937299 2.68978265466 -3.55299061693 89 77 79 2 -0.606001147402 -0.770964106059 0.195900373956
-3.76334351297 2.69517129318 -4.70330685029 36 25 29 2 -0.301970117344 -0.792678492669 0.5295987684
-3.16163112855 2.74691767535 -5.46681287604 40 34 38 3 -0.468569822443 -0.758846814125 0.452320499412
-1.70770993312 2.74366524338 -4.1221196453 145 133 142 2 -0.709701076244 -0.641963501231 0.290184847064
-3.61014580103 2.69501909644 -4.53256610802 35 33 36 4 -0.172597391669 -0.958763793329 -0.225792225266
-2.25486168115 2.74911185257 -4.6920872898 57 52 59 2 -0.605699417687 -0.666104075016 0.43523967726
-2.90708543976 2.7033327707 -4.29817743374 95 75 76 2 -0.520611638373 -0.757035280473 0.394792484871
-2.13377111866 2.72224868367 -3.88590770176 38 42 63 2 -0.669098068888 -0.696838731737 0.258309032287
-3.29683379785 2.71350867264 -5.02663553458 85 63 65 2 -0.39561912727 -0.723874121893 0.565236023084
-3.48593033312 2.6851520194 -4.24958792988 19 13 17 4 -0.145382020597 -0.970684723617 -0.191403331798
-1.96540997824 2.75752569254 -4.4370013482 61 48 55 2 -0.660564013469 -0.654694510778 0.367464667236
-3.35836850505 2.75007736 -6.11706412517 42 27 22 2 -0.32124987432 -0.618959540598 0.716720032755
-3.95205880023 2.69630843144 -4.77302412273 51 29 28 2 -0.249076733153 -0.796160450028 0.551442942482
-3.00193640087 0.393198086499 -5.46203222565 254 229 155 2 -0.0267312444268 -0.589532475529 -0.807302236382
-3.25896469927 2.80676722096 -6.7496833159 107 116 132 2 -0.307179521755 -0.564903537899 0.765849028388
-2.39256036455 2.70797590474 -3.78836061071 68 47 45 2 -0.636654697061 -0.730689061939 0.246504140884
-2.39256036455 2.70797590474 -3.78836061071 68 47 45 2 -0.636654697061 -0.730689061939 0.246504140884
-2.08844753535 2.71021565316 -3.7287197788 64 48 48 2 -0.682962744219 -0.696568850599 0.219894807541
-2.73948427347 2.68645129378 -3.68013794755 108 78 73 2 -0.584120616064 -0.77732172635 0.23361087225
-3.13122804261 2.67814846813 -3.87275773927 29 25 28 3 -0.535857672377 -0.841314949335 0.071033168169
-3.76146016883 2.69747643766 -4.59032405955 29 21 25 2 -0.307273543974 -0.806351686162 0.505351291081
-3.05462718712 2.68025544877 -3.91343116004 115 108 105 2 -0.511942059658 -0.801444980246 0.309194552333
-2.69270059281 2.75058876296 -5.2030504359 44 41 50 5 -0.622429188156 -0.734086586121 0.271475210304
-3.55815836879 2.68643649262 -4.30783649282 22 16 20 3 -0.23066016414 -0.971389763506 0.0565492354906
-3.08192478628 2.68709490963 -3.95034310836 53 19 11 2 -0.503563320345 -0.802667297281 0.319607872679
-3.08192478628 2.68709490963 -3.95034310836 53 19 11 2 -0.503563320345 -0.802667297281 0.319607872679
-2.74102351384 2.67016125212 -3.48500301245 31 23 21 2 -0.592510565612 -0.784883225881 0.181354766601
-2.44721646884 2.6920110856 -3.58254197623 51 40 45 2 -0.637547757288 -0.744763411907 0.197130204335
-3.29959984322 2.699936294 -4.37944969868 62 48 51 2 -0.431978618735 -0.789937778122 0.435192807445
-3.01742014273 2.71013324022 -4.58394567543 54 31 38 2 -0.4812987679 -0.744019527065 0.463450579203
-2.89186411038 2.70819808293 -4.36573651161 90 70 72 2 -0.51936162571 -0.75037730169 0.408897795114
-3.33106691921 2.71192274218 -4.76151895885 93 74 76 2 -0.403041564727 -0.75472521469 0.517636308051
-2.78980333267 2.74908758861 -5.30010627915 86 79 87 3 -0.55997726482 -0.669611106109 0.487900019942
-2.61329477819 2.74761252465 -5.42543431408 52 45 52 2 -0.500586404629 -0.638981158112 0.584051651037
-2.45017196281 2.69452955819 -3.49636100616 56 43 48 2 -0.639439726227 -0.748749010797 0.174618886017
-2.66638718128 2.70079497028 -3.84759347196 42 31 36 2 -0.588961561787 -0.760511261893 0.273398791641
-3.8520950896 2.69615498922 -4.73614894314 64 38 41 4 -0.0477865976033 -0.986105185832 -0.159100608308
-2.39411855216 2.70879238525 -3.85841830644 54 45 48 2 -0.633389365958 -0.727507703681 0.263724197176
-2.39411855216 2.70879238525 -3.85841830644 54 45 48 2 -0.633389365958 -0.727507703681 0.263724197176
-3.57536797442 2.74956141868 -6.26800511248 77 62 64 2 -0.270980908106 -0.612758455708 0.742358688506
-3.57536797442 2.74956141868 -6.26800511248 77 62 64 2 -0.270980908106 -0.612758455708 0.742358688506
-3.10664456421 2.73624225351 -5.42170647078 104 99 105 2 -0.410560294584 -0.67246608727 0.615816211205
-1.86401149681 2.75970779982 -4.29969973659 119 107 109 2 -0.680678135618 -0.652009299426 0.334007708225
-2.94228427559 2.70371570841 -4.28440061097 28 21 25 2 -0.514256318407 -0.762025348194 0.393519767849
-2.64200056907 2.75281962563 -5.30521207574 43 35 43 5 -0.625823641116 -0.723289390454 0.291885641778
-2.67122183327 2.7652553994 -5.28238285788 48 44 50 2 -0.498617225612 -0.657954211792 0.56433776899
-3.49660012569 2.70627617927 -4.57045768908 44 42 47 2 -0.374687578573 -0.788656093207 0.487473881465
-3.02698481756 2.69440610738 -4.23029700757 25 20 24 2 -0.500697445166 -0.774705886969 0.386177235347
-3.09677276404 2.73609339494 -5.60495687825 42 30 29 2 -0.401586045337 -0.653687111994 0.641421708241
-3.34046537191 2.71435291895 -4.80032096812 43 24 26 2 -0.398563331346 -0.751638374808 0.525534988771
-3.29896365593 2.69031210664 -4.27755874568 53 47 51 2 -0.438319444614 -0.798769951577 0.412119677922
-3.29896365593 2.69031210664 -4.27755874568 53 47 51 2 -0.438319444614 -0.798769951577 0.412119677922
-2.78975610133 2.68280914259 -3.47544775521 55 46 43 3 -0.641906236528 -0.762761479457 0.078430280906
-3.77483421501 2.69222523408 -4.60957762385 28 19 25 3 -0.130733819168 -0.979215788427 0.155064851664
-3.12250484085 2.73776410849 -5.22183705476 51 42 45 3 -0.489865628777 -0.774258205553 0.400694268584
-2.34082226912 2.72410690769 -4.08335278431 106 64 68 2 -0.629486104744 -0.710916555746 0.313599895889
-2.71389617859 2.75818041794 -5.25897881942 45 40 47 2 -0.493162638732 -0.662336903284 0.564003934656
-2.71826740398 2.75243218674 -5.25371445152 45 40 47 3 -0.573704004316 -0.667179736301 0.475115685808
-2.99323152366 2.68120480068 -3.91282882715 116 114 110 2 -0.524896866049 -0.794192131269 0.306173380036
-3.2126858193 2.73663474601 -5.43454643162 45 25 24 2 -0.388347720875 -0.678154888385 0.623932684711
-3.22766278081 2.70193732802 -4.5137483687 51 50 55 2 -0.440962372096 -0.769927348308 0.461263552346
-2.98345330591 2.69271987689 -4.08332334222 107 96 94 3 -0.562702072497 -0.817169866075 0.12489910963
-2.71995744162 2.67410995664 -3.59547207562 37 33 33 2 -0.592369535888 -0.777610342741 0.210761684883
-2.73232804157 2.75361610011 -5.27104138982 49 44 51 2 -0.48945592693 -0.662082054521 0.567521143813
-2.16331939989 2.70528518256 -3.86393636759 85 76 91 2 -0.667897202576 -0.699127223029 0.255214523118
-2.88503046299 2.6902675707 -3.92081586916 118 109 112 3 -0.616517721136 -0.762197063811 0.197386766131
-1.57875755974 2.7399281609 -3.98485826834 71 62 67 2 -0.730321217536 -0.633437058817 0.255711579195
-3.44797166881 2.70671334595 -4.74039497884 30 18 22 2 -0.377539547349 -0.765967258753 0.52034416371
-2.77343451256 2.68367167814 -3.46491115749 54 44 42 2 -0.585198506109 -0.791521881458 0.176169860137
-2.6834755472 2.68672029392 -3.48987275609 84 63 52 2 -0.600762345612 -0.778841209844 0.180252528258
-2.70709923782 2.74890523544 -5.16076910174 60 52 63 2 -0.50143202619 -0.669200119046 0.548395043541
-2.9343103698 2.68393236944 -3.7909400528 39 35 31 2 -0.542009589164 -0.795420350118 0.271167977226
-3.35241768021 2.72561376698 -5.24302876613 53 33 38 2 -0.370416295192 -0.7060478598 0.603562911325
-2.83634340751 2.75875508589 -5.52756224686 43 38 44 2 -0.453973217584 -0.647181267066 0.612425281381
-2.54443262175 2.7514976416 -5.34961816458 48 41 51 2 -0.516887988133 -0.640760561348 0.567673066778
-2.05983706578 2.73254959249 -3.94946822193 86 89 102 2 -0.675236827951 -0.686713106884 0.269221720915
-2.73221733109 2.67903629872 -3.44497501705 43 33 31 2 -0.594117698976 -0.786291272713 0.169617788626
-2.7253081824 2.72036621519 -4.53713834908 89 63 72 2 -0.53984996067 -0.720472221583 0.435295069915
-3.3860888672 2.68745633252 -4.19561209977 50 44 47 2 -0.421890700973 -0.815247920689 0.396710302671
-2.87227074455 2.73321203269 -5.69612487276 50 35 38 2 -0.438511000678 -0.630697175383 0.640257116514
-3.13947962853 2.69930424279 -4.43037430031 34 25 31 2 -0.465277589418 -0.769110704811 0.438161486817
-2.51835646887 2.69211074951 -3.46624065398 115 105 107 2 -0.62945614805 -0.758491545025 0.168746951995
-3.18749238606 2.73011277893 -5.18699835473 70 60 59 2 -0.408460753625 -0.701084787116 0.584499729702
-2.98421727392 2.69147447518 -4.0398956806 52 30 33 3 -0.595567355914 -0.76935997164 0.231051419836
-3.16387417702 2.69416899198 -4.18602020506 43 23 25 2 -0.473385675202 -0.793394584179 0.382663084592
-3.19298637003 2.71650689193 -4.69748156908 48 36 38 4 -0.281976251654 -0.949170045731 -0.139877152498
-3.01000940747 2.69244054352 -4.07786892108 72 39 46 2 -0.512272557516 -0.785028327384 0.348292049897
-2.824921966 2.68603117769 -3.70100162094 37 22 22 4 -0.599687917387 -0.794628034278 -0.0945552160379
-2.76019827663 2.70041889744 -4.08394781335 71 52 63 2 -0.560676141369 -0.756555978803 0.336549127821
-3.48879758559 2.69047505113 -4.4198609546 50 45 49 2 -0.385497351319 -0.802621306252 0.455182195254
-2.41139871871 2.72743572081 -4.25972841414 61 42 46 2 -0.608874513578 -0.708476802249 0.356836723712
-3.22321017727 2.7356618685 -5.33748311331 43 38 42 2 -0.3918548763 -0.688726363988 0.6100047143
-3.0734317723 2.69252901834 -4.18882178117 89 80 81 2 -0.493200775118 -0.783101349589 0.378820896591
-3.0734317723 2.69252901834 -4.18882178117 89 80 81 2 -0.493200775118 -0.783101349589 0.378820896591
-2.85865059331 2.67522137346 -3.62314257988 94 64 67 2 -0.564748057797 -0.794509941617 0.223189569395
-2.21596904751 2.7333468516 -4.15697548551 55 46 61 2 -0.643468081766 -0.693833292849 0.323332939062
-3.48155969408 2.68233087272 -4.23175714501 49 43 45 2 -0.397125907321 -0.820714736912 0.410753374118
-2.97522330889 2.68855453167 -4.12242318132 93 84 82 2 -0.517724718596 -0.777108770236 0.357859015502
-3.52601643159 2.75038115584 -6.30859718756 63 51 53 2 -0.279030285411 -0.607062976866 0.74405419288
-3.46180705696 2.71212830533 -4.97361656477 53 34 36 2 -0.361493324804 -0.741654842408 0.56504041524
-3.45624497628 2.70595053655 -4.53294973274 19 18 25 2 -0.386406760221 -0.789234283804 0.47728299878
-2.78487784478 2.70817377917 -4.24567970244 39 37 40 2 -0.546683461634 -0.748395808725 0.375554132261
-3.61660076177 2.70816606788 -4.88552573348 99 93 93 2 -0.329496671599 -0.762249978023 0.557141736373
-3.51957234903 2.69288481075 -4.42058332221 55 50 54 3 -0.237177490115 -0.967722860653 0.0852015443034
-3.29942556314 2.71932540634 -4.81079041556 72 56 57 2 -0.406814517395 -0.747758628264 0.524746588644
-1.82211871118 2.75034904915 -3.97616683071 128 97 106 2 -0.702188044867 -0.661279565717 0.263896353919
-2.65828632103 2.72966577937 -4.55301263298 52 39 49 2 -0.550073836082 -0.713606477758 0.433802454764
-3.27569322061 2.71813004952 -5.14238354526 52 45 42 2 -0.393235987833 -0.710573172068 0.58348198345
-2.74634764224 2.68943178721 -3.56000836168 65 56 57 2 -0.58664696817 -0.784426588123 0.20129645447
-3.04306741374 2.74152795569 -5.2474213883 39 34 40 2 -0.43336298526 -0.685981619733 0.584487587888
-2.75243250628 2.72512044661 -4.5197637876 110 70 75 2 -0.535404777827 -0.725227050896 0.432882719138
-2.76539496709 2.69322983822 -3.9772890829 27 25 36 2 -0.565764716015 -0.763630569592 0.311092653878
-3.02285931769 2.71876169613 -4.65220870453 81 60 62 2 -0.475355359495 -0.739193401453 0.477106274794
-2.66738262313 2.72670224241 -4.46731733662 83 41 45 2 -0.553824176949 -0.720917674933 0.416601112571
-3.01478300734 2.70371111754 -4.22452844877 26 21 25 2 -0.502546928162 -0.774904253525 0.383366642868
-2.02783063619 2.7536519826 -4.42250151078 59 48 52 2 -0.653468560126 -0.661323732681 0.36827946117
-1.95642779743 2.74124746313 -4.09510828078 51 50 62 2 -0.681154356539 -0.669460533409 0.296397261756
-2.70272886151 2.6900422003 -3.6747038951 87 70 69 2 -0.59065573781 -0.773277118556 0.230582517354
-3.46071544484 2.70807130511 -4.72588682025 38 29 32 2 -0.375177184108 -0.768750613594 0.517942636422
-3.40498002538 2.71498827766 -5.06155439409 81 59 61 2 -0.369516358206 -0.728156024406 0.577275034225
-3.34173417514 2.71653609279 -5.14558780595 57 43 42 2 -0.378814104342 -0.714708119678 0.587955932038
-3.24514446218 2.71452134147 -4.70728734846 49 39 40 2 -0.425121295137 -0.753393441005 0.501667427158
-2.63134092609 2.69168807268 -3.57242483439 39 33 34 2 -0.606866484453 -0.769046946593 0.200698440409
-2.65207760552 2.68569057619 -3.4515975155 38 25 32 2 -0.607646471517 -0.776042226641 0.168891172424
-3.73258585828 2.70544929838 -4.95652083865 98 83 79 3 -0.183544228009 -0.963616924038 0.194303731494
-2.75973804217 2.69152028998 -3.70545596189 29 27 41 2 -0.578723873348 -0.779144139584 0.240859062876
-1.60877392533 2.75764209513 -3.97906669446 69 57 61 2 -0.725500851544 -0.639201191529 0.255088908337
-2.42245282338 2.69047532036 -3.53186797788 52 40 44 2 -0.64332207559 -0.743352121658 0.183205704839
-3.28284006748 2.73730156723 -5.38862802637 110 91 85 4 -0.17094200905 -0.899116034039 0.402950601037
-3.26579817264 2.70211817291 -4.47170814115 67 58 60 3 -0.491534164436 -0.839360951626 0.23209342532
-3.26579817264 2.70211817291 -4.47170814115 67 58 60 3 -0.491534164436 -0.839360951626 0.23209342532
-3.10444991365 2.72984832527 -5.14303038268 63 42 41 2 -0.428223966062 -0.699399159309 0.572245621082
-2.41625877961 2.69718470135 -3.55956498569 47 36 36 2 -0.642572535641 -0.742309662665 0.189939203836
-2.69292111426 2.75212960161 -5.29538056858 43 41 46 2 -0.494974712919 -0.656737837731 0.56894239257
-3.20765501662 2.71537939376 -4.80011400331 54 44 48 2 -0.427965948914 -0.740737808305 0.517834573892
-3.096077605 2.7468103703 -5.53503994641 41 24 26 2 -0.405204780078 -0.661946494835 0.630583796317
-2.85541660801 2.6837319871 -3.71690976508 32 24 22 3 -0.588928863932 -0.807735008701 0.0269619907699
-3.68526961265 2.70754701201 -4.98977039345 47 33 30 3 -0.207597629089 -0.960969559707 0.182868066411
-3.47358648174 2.75622252231 -6.38802612487 87 75 75 2 -0.285560626458 -0.598277872432 0.748677978823
-2.62179453823 2.75306148467 -5.20470482883 48 45 52 2 -0.513177513573 -0.659151335797 0.549698422847
-2.6233104982 2.75119023179 -5.20334043537 48 45 52 5 -0.633034662771 -0.725893495002 0.26897165212
-3.08271822275 2.69246038342 -4.11027655695 102 100 103 2 -0.49517826906 -0.790692267407 0.360005861221
-2.73776641356 2.70319611094 -4.06757412287 42 28 32 2 -0.565363616991 -0.755405706695 0.331249451132
-2.98639826417 2.69231489653 -3.97367287798 50 35 38 2 -0.522219490992 -0.790174184449 0.320798318978
-2.17890158816 2.7333142095 -4.21331177961 53 56 73 2 -0.645926180069 -0.686564795961 0.333778595551
-2.93899294884 2.6981258164 -4.1533659906 25 20 17 2 -0.522478088771 -0.771636679504 0.362758158555
-3.42207776564 2.71705760991 -4.9758248392 51 42 43 2 -0.370153187015 -0.739120974486 0.562749325382
-2.66213798899 2.68751342317 -3.54466816835 43 31 32 2 -0.602825270833 -0.773817385638 0.194443684726
-2.66213798899 2.68751342317 -3.54466816835 43 31 32 2 -0.602825270833 -0.773817385638 0.194443684726
-3.03818891342 2.69390916391 -4.08007824728 41 37 35 3 -0.551288260371 -0.824897245613 0.125003152588
-2.70223416273 2.68476378168 -3.60713157925 96 71 69 2 -0.593843340875 -0.775936563137 0.212773439336
-3.68370574506 2.69940015338 -4.64088273394 30 24 25 2 -0.325041385023 -0.79483236384 0.512434982623
-2.0101972225 2.72085946791 -3.79215360482 68 51 48 2 -0.689636455847 -0.686184912273 0.231412672375
-2.94575099592 2.72207028462 -4.74679049637 73 37 43 2 -0.48494469651 -0.723629321093 0.491110218771
-2.80189492168 2.70300636622 -4.25975366233 39 38 43 2 -0.54325457618 -0.748577018472 0.380140648806
-2.00240361152 2.73217286895 -4.00870519104 54 59 91 2 -0.680225508077 -0.677427416517 0.279973844337
-2.00240361152 2.73217286895 -4.00870519104 54 59 91 2 -0.680225508077 -0.677427416517 0.279973844337
-2.02967600874 2.76124867967 -4.69518112176 79 61 73 2 -0.63656155144 -0.64608879896 0.421139709702
-3.02897698845 2.69110391543 -4.06258733609 60 38 41 2 -0.509176621189 -0.788262698137 0.345515682946
-3.14621480846 2.70907835224 -4.49552099186 19 20 25 3 -0.516761794956 -0.823444930077 0.234298302182
-3.61779819405 2.69243351777 -4.4724365903 10 8 13 2 -0.350328203284 -0.808279416218 0.473238349357
-3.32892768026 2.70107166019 -4.65382132157 64 52 54 2 -0.410388466941 -0.764696680227 0.496810118106
-2.9445534974 2.7446510795 -5.17973272557 54 48 52 3 -0.52692935033 -0.758649547255 0.383140084317
-2.01882715783 2.73958542873 -4.05218854995 93 95 113 2 -0.675240855889 -0.678176446391 0.290045675883
-3.1624490813 2.74334038641 -5.42696083777 44 36 40 2 -0.398583750952 -0.676555102949 0.619196403535
-2.94480322167 2.68330933887 -3.75728198082 66 43 41 2 -0.541297909382 -0.798774192482 0.262595435457
-2.91116873936 2.74096740556 -5.27702551346 92 72 76 2 -0.457130355485 -0.673345979114 0.581065427043
-2.694790823 2.6896599805 -3.62585869597 41 37 41 2 -0.593918776566 -0.774624653185 0.217295037955
-2.70793508247 2.75519161995 -5.2779977203 86 83 90 2 -0.493219678572 -0.659812653548 0.566905292696
-2.70793508247 2.75519161995 -5.2779977203 86 83 90 2 -0.493219678572 -0.659812653548 0.566905292696
-3.43572509496 2.72138400109 -4.99975378161 51 36 39 2 -0.365430063505 -0.737978197566 0.567317414331
-3.37620962176 2.68730406336 -4.25596154106 24 22 23 4 -0.231204520652 -0.93991275252 -0.251214026839
-2.27394359813 2.73695383442 -4.52067501832 116 85 83 2 -0.614387221776 -0.67802495476 0.403497834493
-2.82351493527 2.68998458169 -3.88361077416 95 79 76 2 -0.559357067397 -0.77644032156 0.290275900153
-2.09064391699 2.75358905302 -4.57023965875 59 49 57 2 -0.636378388022 -0.658743291751 0.401347508814
-2.09064391699 2.75358905302 -4.57023965875 59 49 57 2 -0.636378388022 -0.658743291751 0.401347508814
-2.52045866285 2.71410146826 -4.03300385224 121 101 100 2 -0.604200852787 -0.733478226394 0.311369588909
-3.24298157376 2.70133900476 -4.44453053935 62 55 55 3 -0.49760980995 -0.837836218747 0.224532731686
-3.06378234925 2.68769105652 -3.905480942 42 32 30 4 -0.592957618646 -0.803576476038 0.0516343843612
-2.88650227747 2.6935977194 -4.00393878924 50 45 46 2 -0.540988797645 -0.776281672968 0.323601429286
-2.41014477494 2.7321664684 -4.24522763889 113 81 81 2 -0.609339400558 -0.709872030545 0.35325231093
-3.88399575238 2.69433799336 -4.67731199514 32 20 22 2 -0.271248509247 -0.803824085536 0.529425240939
-2.11401954795 2.71875883572 -3.71815909328 108 98 99 2 -0.678868383931 -0.701154975334 0.21798949026
-2.31089564583 2.70054727168 -3.55365680069 65 56 51 2 -0.658566910954 -0.729457612341 0.184881625896
-2.81288391685 2.69645630408 -4.1312425245 44 34 35 2 -0.548715032071 -0.758772553652 0.35096442185
-3.07563180583 2.68095195419 -3.83063182886 119 115 109 2 -0.510886314007 -0.8099709724 0.28799687156
-2.74284122358 2.69087618687 -3.57567846957 39 35 36 2 -0.586601368942 -0.78340169765 0.20537919582
-3.36580484975 2.65815739732 -3.66971050335 11 12 17 2 -0.537758224027 -0.833783015374 0.124987902471
-3.02240147439 2.65835977502 -3.46673425102 25 24 29 3 -0.598934160544 -0.790618986949 -0.127277212453
-3.72274105268 2.67161492976 -4.12627370356 61 56 57 2 -0.0808242625265 -0.962613413319 -0.258539852027
-3.01820178697 2.69251310949 -3.69538673292 63 45 47 2 -0.601276479994 -0.789192171695 0.125069223794
-3.33645709206 2.68272411986 -3.98515948553 87 77 78 2 -0.535437294103 -0.81777794024 0.211059575808
-3.44271697284 2.66913983493 -3.87275782197 61 50 48 2 -0.516850796944 -0.836181619702 0.183481749968
-3.02907098289 2.67773694298 -3.65467214571 96 94 90 2 -0.601773666062 -0.790378791574 0.114759839075
-2.99165695847 2.6646918571 -3.35766904397 32 33 35 2 -0.612008122747 -0.790169272562 0.0328417172278
-2.84215318489 2.66543685741 -3.23809880953 60 49 53 2 -0.637488456466 -0.770459822602 -0.000360040068275
-2.77818713754 2.67489760439 -3.42718302807 29 19 18 4 -0.62354056411 -0.749398870557 -0.222707201765
-2.32626820118 2.687767371 -3.45562829293 51 45 47 3 -0.70804186062 -0.702956001242 0.0673021836781
-3.46299658649 2.66468448492 -3.77391043992 30 26 23 2 -0.51451445125 -0.843150517487 0.156115612019
-3.35864496924 2.65319546851 -3.45705975544 24 25 27 2 -0.541193875715 -0.838511261099 0.0633091928484
-3.12217428561 2.6618843075 -3.43430996062 23 21 24 2 -0.588088983365 -0.806917776642 0.0550912822783
-2.96220124745 2.66857551698 -3.3963029968 36 36 36 4 -0.591231954701 -0.7709536698 -0.236802058187
-3.18068931938 2.66211181999 -3.45487056668 78 49 45 2 -0.576638843386 -0.81469467544 0.0613207151542
-3.0911418971 2.66517953384 -3.45680352824 31 26 27 2 -0.593487923951 -0.802517532796 0.0611366803076
-2.77251055844 2.67009235026 -3.3620953584 34 30 29 2 -0.648572116964 -0.76043826557 0.0329826219981
-3.23119224713 2.66960045755 -3.65128881206 76 58 53 2 -0.564296326228 -0.817195497092 0.117308037827
-3.15370212087 2.66314574694 -3.5193348711 68 38 36 2 -0.581515956998 -0.809655117808 0.0793585657955
-1.81327752828 2.72268602179 -3.78027364212 135 134 140 3 -0.756119539401 -0.64075448022 0.133104989439
-1.52228731666 2.72398893911 -4.04450888642 76 63 76 2 -0.779385919632 -0.603428188652 0.1686179392
-3.24143621628 2.66305319863 -3.5125945821 80 61 60 2 -0.564167820225 -0.821941068379 0.0782786735666
-3.20602008057 2.65456175507 -3.37836619845 15 13 18 2 -0.572675138482 -0.818821474212 0.0396809668883
-3.46696506932 2.66800329328 -3.90175449616 32 21 33 2 -0.511141482048 -0.837731428293 0.1921989578
-3.14148252393 2.67582666702 -3.73723709025 45 33 35 3 -0.578851380921 -0.813395379283 -0.0576110733115
-3.14148252393 2.67582666702 -3.73723709025 45 33 35 3 -0.578851380921 -0.813395379283 -0.0576110733115
-3.46084526172 2.67041232398 -3.86421080618 31 21 29 2 -0.512864081062 -0.839086071464 0.181397351226
-3.24616019718 2.65791530125 -3.34676690649 29 19 18 3 -0.551606145339 -0.817808886969 -0.164070974941
-3.3299522898 2.66061668144 -3.68789890401 33 26 33 2 -0.544819652129 -0.828487243809 0.129539312565
-1.68533921125 2.73921571088 -4.11232559552 72 65 75 2 -0.761506641623 -0.620584782421 0.187035190787
-3.12905774365 2.66804802489 -3.31580359084 78 72 69 2 -0.585856763422 -0.810134003851 0.0213248342727
-3.0266575425 2.67054045621 -3.54213613977 38 34 30 3 -0.598198359407 -0.794103976905 -0.107506263384
-3.21794062658 2.66607247488 -3.60866652229 82 65 58 3 -0.562729474842 -0.821367956908 -0.0932213361295
-3.21794062658 2.66607247488 -3.60866652229 82 65 58 3 -0.562729474842 -0.821367956908 -0.0932213361295
-3.09225710934 2.66840577592 -3.71820556189 43 34 35 2 -0.590501497271 -0.795910277846 0.133547037928
-3.48284988705 2.67068089099 -3.83786919723 20 15 21 2 -0.508394821529 -0.843280795203 0.174390957003
-2.92631735133 2.67132779532 -3.45848151133 38 32 37 2 -0.622486396557 -0.780318897216 0.060109107038
-3.36119712724 2.66145144996 -3.61393805895 17 15 17 2 -0.538827041129 -0.835367724048 0.108748266041
-2.88267099048 2.69091257649 -3.47297288975 29 24 30 2 -0.62731663565 -0.776195103638 0.0632060102013
-3.41997018007 2.65938937713 -3.67337043006 29 22 19 2 -0.525861868398 -0.841070429104 0.126766827885
-2.89308058944 2.66732704725 -3.38478156556 27 26 31 2 -0.628937999806 -0.776435476509 0.0398113453457
-3.41815651353 2.6537951995 -3.50142163566 18 19 23 2 -0.528084951069 -0.845718681845 0.0767215460781
-3.39822556151 2.65589645914 -3.53263179408 45 36 42 2 -0.532069023087 -0.842354719891 0.0856801059064
-2.90070394864 2.6849780607 -3.67545628024 41 30 28 5 -0.616020627675 -0.781603838048 -0.0980511429197
-3.13774212752 2.6708714213 -3.62211369179 88 67 61 3 -0.578438993516 -0.810933801613 -0.0882875992533
-3.48887995077 2.66441154566 -3.76796643958 34 22 22 2 -0.508858476408 -0.846804455126 0.15487177201
-2.95711263528 2.66064741567 -3.34181825112 22 28 26 2 -0.618697372239 -0.785116530567 0.0283830057461
-3.00695294826 2.69021547693 -4.064165904 107 95 95 2 -0.595704455029 -0.772042621611 0.221554491436
-3.27890491461 2.66203576307 -3.41296132072 72 41 39 2 -0.556858376334 -0.829112603953 0.0498100258355
-3.14485240395 2.68728000321 -3.99945875497 100 81 71 2 -0.572513944758 -0.792742618459 0.209253253108
-3.4474857964 2.65349820585 -3.53447912173 19 20 24 2 -0.521517603825 -0.84882332786 0.0867084020194
-3.45811903885 2.67558746681 -3.93742939315 19 17 21 2 -0.511445261544 -0.835359220476 0.201491233581
-3.31493171854 2.66521165086 -3.74864073648 89 65 66 3 -0.544809102233 -0.836649574616 -0.0565732394295
-2.79591022083 2.70610132604 -4.14713802053 48 38 39 2 -0.626831213806 -0.74315271596 0.234108244535
-3.178620964 2.66903221924 -3.74818253671 114 105 106 2 -0.573492226087 -0.80656276089 0.143398672806
-3.15635504375 2.67312260508 -3.62040628109 39 27 27 2 -0.57889137169 -0.808295686759 0.107437714744
-2.6186840725 2.68728883983 -3.59085488994 115 74 77 3 -0.666332720788 -0.738092617595 0.105924468653
-3.31127973783 2.67416412401 -3.85183065935 31 27 24 2 -0.544493786446 -0.820409335319 0.174513721647
-3.07785424031 2.66260780716 -3.38071744682 28 20 19 2 -0.596450824394 -0.801667618241 0.0396918624276
-0.827005075447 2.72418901174 -2.97063424604 149 130 127 4 -0.51063809315 -0.444732991881 -0.735840542344
-3.47852341964 2.67613912305 -3.97929253643 20 13 17 2 -0.506023176321 -0.835672096045 0.213524455081
-3.28950085319 2.6709748522 -3.7858455704 28 29 23 5 -0.283185490012 -0.951902263834 -0.116995975805
-3.22799606059 2.66668946326 -3.62047261456 33 27 33 2 -0.565631423144 -0.817464496719 0.10868711863
-2.89966383885 2.66326846118 -3.31294487107 82 83 75 2 -0.628312130839 -0.777698816098 0.0202093463579
-3.18661023589 2.66105171325 -3.48374185534 74 46 43 2 -0.575521017204 -0.814817908945 0.0696227981225
-2.42029933398 2.69967987865 -3.73549439377 58 38 46 2 -0.692890326259 -0.710432498162 0.123242287111
-3.23134351362 2.65400072085 -3.33280759904 49 37 36 2 -0.567545969264 -0.822913093029 0.0265633976301
-3.3535822906 2.65513892061 -3.42648836698 77 79 71 3 -0.531234402603 -0.834658852852 -0.145377470215
-2.73288119232 2.6978625151 -3.88084941118 98 68 62 2 -0.645104714497 -0.745670674816 0.166778751803
0.725281840975 1.69112131574 -4.80987502484 71 76 88 2 -0.941463680637 -0.275437610687 0.194371450217
-2.76945109172 2.69680428678 -3.9805643381 47 39 42 2 -0.688698117946 -0.715561888208 0.116902037969
-2.08398150732 2.69063170772 -3.45023607622 53 41 35 3 -0.73656209239 -0.673428420832 0.0630114756964
-2.30197137438 2.69306398913 -3.54132744579 107 84 76 2 -0.748201350507 -0.663438251615 0.00666523769271
-2.30197137438 2.69306398913 -3.54132744579 107 84 76 2 -0.748201350507 -0.663438251615 0.00666523769271
-2.18327887121 2.71059543908 -3.66777367894 56 37 33 2 -0.757805144488 -0.651535351886 0.0351147864855
0.183103158849 2.71208371144 -6.68483983389 69 81 84 2 -0.666774207896 -0.418029329873 0.616979444593
-2.27000771891 2.73996798246 -4.47866563021 129 113 104 2 -0.163635984398 -0.986344067148 -0.0186720596402
-1.7672573191 2.69459591639 -3.41035990403 42 34 33 3 -0.768930230156 -0.637350363984 0.0503072030924
-2.56742774956 2.67584854627 -3.37562609831 60 44 39 3 -0.677579298297 -0.733762886023 0.0497827441435
-1.39696690473 2.73749836602 -4.00073131309 177 188 194 2 -0.815322427718 -0.571011450925 0.0958919275654
0.691470631608 1.50552417857 -5.04757643299 112 121 130 2 -0.940649619653 -0.248447088828 0.231197614822
-4.22384460849 2.69308138882 -4.97901559803 39 20 11 2 0.0697599109759 -0.725076752363 0.685125724231
-3.20925574778 1.43125787535 -4.85212960141 255 249 209 2 -0.745834536864 -0.508295364727 0.430542292717
-3.0285646729 2.69583002699 -3.98457410747 25 21 22 3 -0.634488534123 -0.771766861694 -0.0424288964845
-3.90985427015 2.68712874577 -4.57934260531 32 28 29 3 0.11972804739 -0.883641723895 -0.452595292133
-1.53334393536 2.69894096173 -3.48272124332 50 42 40 3 -0.788602036861 -0.611600245431 0.0636550645952
0.648640182918 2.56864193719 -5.01038041148 62 70 76 2 -0.894126508063 -0.392469175743 0.215651880747
-2.31948696348 2.69345062066 -3.64295092563 81 45 31 2 -0.746104778332 -0.665136230702 0.0303554666711
-2.17355850208 2.73025527966 -4.19444950722 34 31 40 2 -0.748693816568 -0.645266700277 0.151948855037
0.074837214565 1.6501511102 -2.13243774721 78 61 41 2 -0.725083263531 -0.181631787926 -0.664277166973
-2.62430740653 2.7516844578 -5.26855004997 34 26 24 4 -0.662902197787 -0.724049687969 0.190558981736
-1.97606330316 2.69307016112 -3.45576393582 44 38 38 2 -0.779143662905 -0.62671776691 -0.0126488415751
-2.57714881445 2.6494991643 -4.19549546012 226 241 244 2 -0.713788869154 -0.680607956202 0.165161315765
-2.72636961845 2.67698725908 -3.55239459201 45 34 30 2 -0.700913743485 -0.713174234781 0.0101210196213
-2.72789602669 2.67836142065 -3.55274723995 45 34 30 4 -0.654552117216 -0.721921204578 -0.224480066438
-2.98338235691 2.69601575262 -3.707379289 85 73 61 2 -0.66226623858 -0.747541262852 0.0508477095869
-2.98338235691 2.69601575262 -3.707379289 85 73 61 2 -0.66226623858 -0.747541262852 0.0508477095869
-2.66994693672 2.75926999144 -5.33948871596 34 26 24 3 -0.653198637077 -0.703745932864 0.279415823634
-2.66933776924 2.75996314836 -5.33996029629 34 26 24 2 -0.639842589345 -0.652066504715 0.406707184949
-1.60512376467 2.72854402304 -3.80002807256 47 38 32 2 -0.804027975826 -0.591698396114 0.0585834628881
-1.54214383832 2.72869181069 -3.63007490333 89 61 55 3 -0.782932314185 -0.614813307511 0.0949820420558
-1.74482187186 2.72524913251 -3.77440538291 48 37 41 3 -0.762558767382 -0.63368466119 0.130184010007
0.615637379807 2.4669657508 -5.15039050911 255 255 255 2 -0.894178575118 -0.379708030105 0.237205581035
-2.53156926835 2.75223917189 -5.12930741664 40 31 29 2 -0.669711198608 -0.6497296916 0.359636258339
-2.71764349778 2.70295600612 -3.91962639277 44 36 34 2 -0.695779303282 -0.711138679513 0.100860991589
-1.88478646292 2.69839319375 -3.49391224349 40 34 34 3 -0.756309215578 -0.650396369618 0.0705757240075
0.598226351665 2.4837040213 -5.09540786311 67 68 73 2 -0.894498421259 -0.383399183494 0.229951387168
-1.89280468691 2.74315245449 -4.18282591388 50 38 36 2 -0.773594514902 -0.617495920373 0.142303600929
-1.89280468691 2.74315245449 -4.18282591388 50 38 36 2 -0.773594514902 -0.617495920373 0.142303600929
-1.90513106406 2.69512511982 -3.40885070557 41 35 35 2 -0.784844968635 -0.619275485135 -0.0227211073366
-3.01792981714 2.22089202071 -4.49771669216 33 41 44 2 -0.697605956819 -0.662014254338 0.274012875727
-1.12767479607 2.0787993035 -6.02438585036 49 63 70 2 -0.796081094688 -0.40168991114 0.452658928962
-0.198363101078 2.35228641898 -5.89647921948 45 58 59 2 -0.839917216641 -0.393017550929 0.374267650021
-2.84641651821 2.68539482954 -3.70472038196 25 15 13 4 -0.640596481791 -0.743428003734 -0.192226300963
-2.86440592274 2.6931273892 -3.84864244326 41 28 22 2 -0.678326296608 -0.729742334393 0.0857295790597
-2.37697399444 2.70837605714 -3.98257762387 45 33 31 2 -0.734511292029 -0.669697194008 0.109539172081
-1.45020335767 2.72680236981 -3.72050659086 64 49 42 2 -0.815727396178 -0.576968551124 0.041183809178
-2.71404113302 2.70542769543 -4.0630066782 83 45 35 2 -0.693252366432 -0.707826400256 0.135583714133
-2.66168434584 2.71494849169 -4.28443696526 75 40 38 2 -0.693124084551 -0.69630832599 0.186369843518
-1.92724771928 2.70491428398 -3.63544516972 76 61 56 2 -0.782005315685 -0.622707121121 0.0265240936684
-2.13590985967 2.73517246988 -4.10482487764 75 44 46 2 -0.753890031675 -0.643721386524 0.131425251276
-2.96299977333 2.68359646825 -3.75709721223 65 41 31 2 -0.666478879638 -0.742795537261 0.0637235656663
-1.52213407906 2.69136644881 -3.44743088213 103 94 84 3 -0.790651977475 -0.609699748933 0.0559970237229
-1.68204613546 2.73760031926 -3.90199243914 57 39 32 2 -0.796256781643 -0.599604384557 0.0803101469759
-2.24654855108 2.7393756693 -4.23120208916 78 41 43 2 -0.73939553195 -0.653576656746 0.161653336153
0.646038431922 2.57408572362 -5.05173444167 63 69 75 2 -0.892610705982 -0.392749697881 0.221345436774
-2.34384282751 2.68231872241 -3.41175483687 33 22 18 3 -0.706861526368 -0.705076354155 0.0566931861195
-2.40197552902 2.68428683944 -3.43735072344 44 23 20 2 -0.738391503076 -0.67413792636 -0.0177776384435
-2.33455584997 2.70199614354 -3.78655704569 48 34 31 2 -0.742503806686 -0.666802347205 0.0637395232134
-1.80283033073 2.73892280606 -4.24244915633 55 41 38 2 -0.780230143888 -0.60662106748 0.152485419165
-2.66036593255 1.34113926382 -4.63464478874 240 219 187 2 -0.837852699303 -0.435070872554 0.329721382571
-1.58672186092 2.69862038543 -3.45885519387 102 95 89 3 -0.784338378535 -0.617511023097 0.0591053661699
-2.63267982854 1.42519249817 -4.6605933097 146 110 82 2 -0.829278962845 -0.450731554468 0.330359603445
-1.43754635688 2.7117537814 -3.67618641694 75 61 54 3 -0.792599959348 -0.600955068177 0.103142185715
-1.40082821291 2.70915742272 -3.53381707286 64 51 45 3 -0.797732246738 -0.598609615599 0.0727309468215
-2.83839081167 2.6893174028 -3.81380876247 45 30 25 2 -0.682841705271 -0.726534745069 0.0766450895357
-0.739239196811 2.7090726948 -2.24389618462 152 167 172 4 -0.469599613275 -0.388915074368 -0.792604105554
-1.21246669023 2.71087358954 -3.50255799379 68 54 50 2 -0.832918780883 -0.553389628574 -0.00249468212301
-2.10707889649 2.7319194136 -4.19446913393 87 58 50 2 -0.754994762056 -0.638289024016 0.150233255603
-2.84422234475 2.68832079756 -3.90039576133 29 20 13 2 -0.68099539947 -0.725627050932 0.0985426245648
-2.88408642182 1.45373745967 -4.71491863149 144 127 102 2 -0.796590977622 -0.483074146158 0.363431126466
-3.16819784211 2.68801124448 -4.02060536614 65 36 30 2 -0.630233807219 -0.764467749066 0.135625988943
-3.05880114697 2.69155974845 -3.93496618519 28 18 15 2 -0.648719235678 -0.752883784961 0.111037649488
-2.0000654749 2.67822106278 -3.38420309294 41 35 37 3 -0.747680354856 -0.662416227505 0.0466779230563
-2.89118779616 1.38747938179 -4.75070060631 229 215 173 2 -0.800360770236 -0.466223618845 0.376906055535
-1.31751269649 2.70863335569 -3.59864364177 63 49 43 3 -0.803386496481 -0.589353356068 0.0850456287148
-1.89950546366 2.73406551036 -4.22331246757 87 72 65 2 -0.772996706651 -0.616159821098 0.151073380752
-1.6505963633 2.70604287055 -3.64939464907 41 37 36 3 -0.775573540195 -0.623056403134 0.101421902284
-2.73204597097 2.66547179481 -3.44371216054 43 29 24 2 -0.701414031517 -0.712547500115 -0.0171585684544
-2.04466237207 2.71800848998 -4.01976357538 50 42 55 2 -0.76601766233 -0.633097865267 0.111373398951
-2.64060506148 1.34357927568 -4.60543229404 196 182 163 2 -0.841564348616 -0.434770381705 0.320537302556
-2.86892268944 2.69752994694 -3.93899131245 28 19 13 2 -0.675781859609 -0.729079089126 0.108455336531
-2.97929793652 2.6930391472 -4.06165429005 47 23 19 3 -0.643259954287 -0.765322117509 -0.0223313157395
-2.70970151337 2.67303683676 -3.39776754254 31 17 10 4 -0.652077638558 -0.712404319519 -0.259373936284
-1.68117190952 2.70105886675 -3.47376617449 47 38 35 3 -0.775620011639 -0.62800333088 0.0634461499953
-1.58368467388 2.70626604113 -3.56852647562 48 36 36 2 -0.808983679627 -0.587725841738 0.0111238954782
-1.93281498846 2.73248124082 -4.20676099543 51 40 37 2 -0.770647649296 -0.619720998876 0.148485973031
-2.1055153299 2.72779354246 -4.25725591601 46 36 41 2 -0.754003700168 -0.636129802967 0.163759866602
-2.91252538537 2.68310713427 -3.72816288804 29 13 5 4 -0.631073764785 -0.752450442485 -0.188584821774
-3.091225938 2.69046676947 -4.12264048302 75 64 60 2 -0.639905677409 -0.751599892502 0.160057257292
-1.351990543 2.70753270973 -3.61720124362 111 101 92 3 -0.800625955893 -0.592451048261 0.0894417920515
-1.94798126092 2.71283207029 -3.65400094262 48 37 33 2 -0.77929872649 -0.62590381947 0.0306252128984
-1.80068984959 2.68857500819 -3.37789760049 40 32 27 3 -0.766647320434 -0.640604353207 0.0433353057479
-1.87741146936 2.69246021905 -3.4367256011 40 35 33 2 -0.787559738116 -0.61601452913 -0.0166059868507
-1.05649901542 2.72953666226 -3.26800552199 194 191 184 3 -0.513152947752 -0.431913314514 -0.741704079104
-1.62384174014 2.68872264736 -3.43310477362 50 42 39 3 -0.78240500033 -0.620426092769 0.0539803563337
-1.86092761352 2.73530632968 -4.18101298584 64 50 45 2 -0.777162301342 -0.613223932762 0.141333526315
-1.86092761352 2.73530632968 -4.18101298584 64 50 45 2 -0.777162301342 -0.613223932762 0.141333526315
-2.20152716686 2.69589440322 -3.50664548249 54 29 24 2 -0.758006013027 -0.652246023613 -0.00141735536017
-2.20152716686 2.69589440322 -3.50664548249 54 29 24 2 -0.758006013027 -0.652246023613 -0.00141735536017
-2.18706595239 2.70894148316 -3.75377251502 51 37 30 2 -0.757034520052 -0.651087908202 0.054619330298
-2.18706595239 2.70894148316 -3.75377251502 51 37 30 2 -0.757034520052 -0.651087908202 0.054619330298
-2.55179614393 2.69779994879 -3.68819023035 31 28 22 2 -0.719489158945 -0.693197982663 0.0425665008209
-2.89410088715 2.69026917362 -3.8847516076 94 81 73 2 -0.674015619408 -0.732534367975 0.0953747583401
-2.12080111148 2.68812579684 -3.3671138204 98 85 77 2 -0.766127889006 -0.641846509826 -0.0328803210318
-2.90864348526 2.69466703863 -3.97242997402 107 94 88 4 -0.636093231333 -0.760926424901 -0.127970218955
-3.31152274111 0.697673779174 -5.05549356327 255 225 125 2 -0.784966394816 -0.29609006048 0.544204405619
-1.82362684634 2.74058856868 -4.29519802357 50 37 35 2 -0.777009239739 -0.607819158143 0.163745266664
-1.82362684634 2.74058856868 -4.29519802357 50 37 35 2 -0.777009239739 -0.607819158143 0.163745266664
-3.33132431274 0.985463151111 -5.57502198119 62 47 32 2 -0.686303417973 -0.350655891664 0.637203314587
-2.65512673719 2.68027682344 -3.53103152932 57 38 34 2 -0.709548038051 -0.704641489522 0.00468539669707
-2.65098722699 2.68354869608 -3.53122908512 57 38 34 3 -0.682240085214 -0.715816509382 -0.148846199222
-1.87859615221 2.74090251157 -4.25743043547 50 39 35 2 -0.773269413693 -0.614217661921 0.157451826386
-1.3677584051 2.70560368125 -3.48281302533 60 47 42 3 -0.801185611176 -0.595231277484 0.0616550302047
-2.69795377746 2.66664940892 -3.36899568205 38 20 15 2 -0.705200855332 -0.708106212214 -0.0357399757091
-2.51752055438 2.68675423244 -3.60778204241 49 34 34 2 -0.725206817939 -0.688145282034 0.0230465188075
0.576940628336 1.75518389783 -5.60992775135 192 192 182 2 -0.907856039519 -0.281517761825 0.310717172501
-1.83795633647 2.71130055358 -3.65661979144 96 89 86 3 -0.757282988165 -0.644357921557 0.106420603091
-3.05677752585 2.67869651342 -3.79379738553 32 18 11 2 -0.65266411689 -0.753980525423 0.074450774388
-2.7582917601 2.12991085139 -6.69549918188 55 44 30 2 -0.580278195776 -0.475401504506 0.661264413847
-2.33138914145 2.67236767011 -3.31637392376 60 47 44 2 -0.746562457866 -0.663728115517 -0.0459291321222
-1.66072540631 2.75083034947 -4.282880239 56 36 38 2 -0.789469985941 -0.593426926837 0.156785279294
-2.32944464499 2.7154464701 -3.96792140653 92 57 55 2 -0.73905665355 -0.665382716148 0.105171782789
-1.21780509944 2.72556204937 -3.33715072603 182 173 168 4 -0.501592438794 -0.417199085271 -0.757858791988
-2.19448557003 2.73323931499 -4.32721344496 95 59 50 2 -0.742737611479 -0.644611072425 0.18115575012
-2.81079900495 2.70232685485 -4.03850950811 62 43 36 2 -0.6813165938 -0.720011523738 0.131875337715
-2.1996434086 2.73138556731 -4.3730267827 73 44 41 2 -0.741053378181 -0.64365240714 0.19118438605
-2.41670229196 2.69830638615 -3.67803815679 80 65 62 2 -0.734920333787 -0.677022250296 0.0391532321745
-1.68672752776 2.71888804778 -3.6663168708 90 63 60 2 -0.799823044756 -0.599397247647 0.0317180798693
-2.22674596009 2.71017070617 -3.8553848201 91 76 71 2 -0.751900615379 -0.65464016581 0.0780494580404
-1.9526700426 2.71847948506 -3.75638645514 68 47 38 2 -0.77763795099 -0.626485054634 0.0528743179625
-1.59439124642 2.71930033284 -3.66102030277 110 82 76 3 -0.778940926657 -0.618633954157 0.102679421218
-1.55334680472 2.69691397506 -3.44878660422 51 44 38 3 -0.787447523446 -0.613780479198 0.0565678457653
-2.49920510875 2.75898862223 -5.31086786789 42 29 29 2 -0.663244284058 -0.637671361709 0.391768112689
-1.46597435843 2.71321717934 -3.59847963716 51 38 32 3 -0.791314380902 -0.605151143383 0.0872561988622
-2.77875000744 2.67526266833 -3.47894754338 85 72 65 2 -0.694166737013 -0.719765571735 -0.00837036254309
-1.92088236179 2.71313298176 -3.68445648878 66 58 51 2 -0.781445532628 -0.622871429101 0.0370683469526
-2.6198040209 2.67488073906 -3.44121500959 36 22 16 2 -0.714364081853 -0.699556466534 -0.0174559069611
-2.42237505028 2.68868887676 -3.46306189775 53 32 29 2 -0.735721893663 -0.677182266175 -0.0117249121182
-2.77109804063 2.6990186064 -3.98898807705 43 34 37 2 -0.688048008679 -0.715849382599 0.118952087772
-2.77109804063 2.6990186064 -3.98898807705 43 34 37 2 -0.688048008679 -0.715849382599 0.118952087772
-2.23218663612 2.72962049207 -4.32269859218 46 29 29 2 -0.739422726032 -0.648338693137 0.181413812065
-2.23218663612 2.72962049207 -4.32269859218 46 29 29 2 -0.739422726032 -0.648338693137 0.181413812065
-2.3585127965 2.68727882176 -3.44872785663 103 92 87 3 -0.704044910029 -0.707082686584 0.0659912039254
-1.27204153817 2.70540424062 -3.43891016261 55 41 38 2 -0.829685242204 -0.558032260304 -0.0149129249022
-2.62670256492 2.68627801137 -3.53853240628 30 16 11 2 -0.712324259009 -0.701820580558 0.00648249432963
-2.31285466571 2.68607015478 -3.36603776817 39 24 22 3 -0.719530775903 -0.671279391664 -0.177931000263
-2.30863489623 2.68843525187 -3.3652594235 39 24 22 3 -0.710872375344 -0.701898201868 0.0447144292973
-2.9554691309 2.69372588501 -4.1796654079 23 15 13 2 -0.658596507544 -0.732900436636 0.170609467
-1.54381840118 2.73742428786 -3.87614236441 98 71 64 2 -0.806821236454 -0.586237027032 0.0732505327248
-1.87452053269 2.73699783453 -3.86861606135 50 41 42 2 -0.78124815859 -0.619587707289 0.0759103924165
-1.79805887227 2.69370779197 -3.44379960198 48 38 36 2 -0.79391535293 -0.607845272678 -0.0149176695787
-2.31563107533 2.69339758795 -3.57507087068 51 36 33 2 -0.746712006231 -0.664988489824 0.0145426322431
-2.09983663611 2.69772540519 -3.50822983806 44 25 21 3 -0.733341539793 -0.675501301472 0.0768646714956
0.988983022088 2.58891704522 -4.3012845478 212 226 234 2 -0.916676329888 -0.384259373719 0.109769029929
-2.42475655553 2.68237334015 -3.51826079582 111 98 91 2 -0.736318272965 -0.676633897627 0.00140338176706
-3.24878940587 0.694025028636 -4.98712631188 254 193 109 2 -0.803079129277 -0.293477674769 0.518589207883
-1.58594576663 2.73015242476 -3.75653451212 66 56 47 3 -0.776846442147 -0.61761593473 0.122719853695
-1.58620926333 2.73115104581 -3.75606512286 66 56 47 2 -0.805520377597 -0.590504457121 0.0494106000444
-2.09192440885 2.7018021923 -3.47606063335 42 31 23 3 -0.734097086506 -0.675522670967 0.0690694476007
-1.81281524884 2.74464113051 -4.21254726441 57 43 40 2 -0.779539621985 -0.608979622757 0.146498453309
0.75667714365 2.8398510679 -4.32364486279 73 87 90 2 -0.897358791268 -0.426157856856 0.114615360117
-2.79544187558 1.44977185588 -4.47949482242 231 209 186 2 -0.824555269113 -0.483218986125 0.294292404976
-2.65121883046 2.68706945998 -3.66051878438 32 23 20 2 -0.70889393977 -0.704364108927 0.0366139893001
-2.38352150671 2.68864948234 -3.51628080487 51 36 29 2 -0.740076532581 -0.672522060813 0.000896461721829
-1.97552343482 2.74091146363 -4.30956817213 129 105 101 2 -0.7633539364 -0.622971920966 0.170870575204
-1.81006873143 2.7318325224 -4.09215615622 91 77 71 2 -0.783624958617 -0.609165580894 0.12185737272
-2.49160967025 2.71242988787 -3.97290780284 125 95 87 5 -0.218533496842 -0.708593645726 -0.670923360746
-2.28834789215 2.70669368332 -3.99188805555 47 27 22 2 -0.743950785064 -0.659114692765 0.110022957529
-2.7517234041 2.67066210213 -3.46245318443 94 81 75 2 -0.698266716151 -0.715728764803 -0.0124871273507
-1.75223844573 2.6933266722 -3.4483472457 37 27 25 2 -0.797581969246 -0.603051201074 -0.0138654685303
-1.54816040603 2.72951135562 -3.92122067561 48 34 31 3 -0.776567559537 -0.610303256293 0.156437721898
-2.88687759313 2.6878055158 -3.87087907003 95 79 66 2 -0.322449093113 -0.83315506654 0.449309712168
-2.91216480086 2.67549547748 -3.63105235096 39 29 20 4 -0.629129997503 -0.747744109369 -0.212306837258
-1.51393011395 2.71663767559 -3.65684607595 49 37 31 3 -0.786152083071 -0.609827914978 0.100373384901
-1.93959755263 2.73665795629 -4.02515468846 53 48 60 2 -0.773374906682 -0.624290653625 0.110238076505
-1.50682912744 2.76087599502 -4.14869621466 172 182 182 2 -0.802970720781 -0.582428084098 0.126552552018
-1.71698084349 2.69040147402 -3.41751242727 96 87 81 3 -0.774013915012 -0.631074023863 0.0514590689119
-1.40221879737 2.73420600577 -3.83545309271 60 39 36 2 -0.817327005425 -0.572661093129 0.063528250557
-1.65057537827 2.69973963716 -3.46679367753 97 89 81 2 -0.804708696162 -0.593588146627 -0.00985020328465
-1.4778381633 2.72859662432 -3.78640384868 54 43 37 3 -0.785611678731 -0.605612082799 0.126681866936
-2.28326467423 2.73895468483 -4.23613788378 48 27 26 2 -0.735490080377 -0.657451997677 0.163741297229
-2.03304632674 2.72388731372 -3.79012843991 100 75 70 2 -0.769602628689 -0.635603634916 0.0609902713354
-2.27057494375 2.72302507661 -4.29111963627 43 35 32 2 -0.737071289644 -0.652530142814 0.175870198446
-2.28465583054 2.71863386941 -4.2583902595 76 46 49 2 -0.736988213213 -0.654380503152 0.169217406553
-2.83747957777 2.7013311898 -4.13091266074 37 26 22 2 -0.675684624436 -0.720670294878 0.155192185308
-2.3825864525 2.71279260514 -3.96123661805 73 43 41 2 -0.73375778195 -0.67130374849 0.104646044792
-2.45422619624 2.71477693568 -4.09209041596 46 28 24 2 -0.723023996171 -0.677257147396 0.136231630918
-1.89392516021 2.73999891719 -4.15958784686 49 38 36 2 -0.77433841211 -0.617640595587 0.137550420626
-2.81084746442 2.69053542854 -3.73059538427 32 21 19 2 -0.687265439511 -0.724296833412 0.0553200936709
-1.74789847596 2.70286796232 -3.52893148926 47 42 40 3 -0.768694083276 -0.635020453897 0.0765403780273
-2.15485467777 2.73784542298 -4.22710137096 83 48 53 2 -0.748909850439 -0.643472560342 0.15835750693
-2.58402725541 2.68438395466 -3.49275141106 42 26 21 4 -0.672140621979 -0.702859563866 -0.232842044674
-2.48726416277 2.67881736594 -3.3595331691 33 22 19 2 -0.729069299561 -0.683453495774 -0.0367324863327
-1.45155839609 2.72770010191 -3.80576730129 58 46 40 3 -0.787472005581 -0.602455325276 0.130136165125
-1.44323430129 2.73330050119 -3.80618625805 58 46 40 2 -0.814932457595 -0.576630111463 0.0581618785195
-3.29682324392 2.68187090899 -4.03062669774 64 50 49 2 -0.609179345082 -0.780341209206 0.141308608162
-3.29682324392 2.68187090899 -4.03062669774 64 50 49 2 -0.609179345082 -0.780341209206 0.141308608162
-2.70296822134 2.69931695714 -3.90065720207 84 56 46 2 -0.698412355328 -0.709221830141 0.0960446644869
-1.74096897684 2.73035089834 -3.83484028555 92 52 50 2 -0.793188573746 -0.605254073541 0.0672264303669
-3.23225266646 2.74668727548 -5.56549411739 47 34 28 3 -0.265698099674 -0.66502353324 0.697960041884
-1.6458736141 2.68255201274 -3.38384956535 114 98 90 3 -0.781495559238 -0.622400245843 0.0433892252248
-1.62736811148 2.73995375757 -4.02740793717 100 87 81 2 -0.79833843035 -0.592983406455 0.105006810709
-2.13191168551 2.71824877538 -3.86978778954 47 38 46 2 -0.76010941514 -0.644868221408 0.079866476276
